# .PCD v0.7 - Point Cloud Data file format
VERSION 0.7
FIELDS x y z
SIZE 4 4 4
TYPE F F F
COUNT 1 1 1
WIDTH 396
HEIGHT 1
VIEWPOINT 0 0 0 1 0 0 0
POINTS 396
DATA ascii
-0.010892692 0.022636561 0.58952332
-0.0049517266 0.025151249 0.58631802
0.0050463462 0.025244825 0.58297318
0.015127987 0.025210461 0.58220351
0.025281213 0.025277063 0.58369488
0.034208186 0.024868008 0.58735573
-0.0043213917 0.034645572 0.58767664
0.0051080529 0.034980811 0.58437198
0.015079891 0.035287745 0.58352822
0.025187865 0.034867603 0.585168
0.03300523 0.034501478 0.58845061
-0.0026147086 0.044123944 0.58866119
0.015300686 0.045021001 0.58545351
0.024915855 0.04474305 0.58700651
0.031085946 0.043741234 0.58914876
0.02423507 0.05445813 0.58868724
0.030146295 0.050584462 0.58994353
0.015037659 0.06421382 0.58919233
0.022094473 0.062402159 0.58959538
-0.020254266 0.018696025 0.59962595
-0.014517805 0.018876158 0.59649074
-0.0051555806 0.019070018 0.59524637
0.0051547671 0.019067774 0.5951761
0.015125964 0.019097188 0.59494805
0.024902528 0.019032752 0.59518981
0.035040691 0.019061096 0.59496766
0.04362629 0.018802624 0.59691823
-0.020256907 0.02077641 0.59970415
-0.015362769 0.025080545 0.59429669
0.038931254 0.026034564 0.59091979
0.043684654 0.024700414 0.59550512
-0.014412057 0.03489488 0.59523135
-0.0091535188 0.035931878 0.59076881
0.037709884 0.035512045 0.59176266
0.042860858 0.034866668 0.59645897
-0.013636758 0.044850037 0.59636003
-0.0074323234 0.04578118 0.59160155
0.03603676 0.04543823 0.59255934
0.042252369 0.044710241 0.59763378
-0.012919104 0.054628059 0.59753454
-0.005551063 0.055382263 0.59246659
0.028075013 0.057684381 0.59055275
0.035074934 0.055024989 0.59385544
0.041591011 0.054141726 0.59875327
-0.012075276 0.064223513 0.59867918
-0.0052659628 0.06499178 0.59421325
0.0169478 0.068458043 0.59019738
0.025766471 0.065605752 0.59134954
0.034902837 0.064871833 0.59564054
0.040777564 0.063114733 0.59976411
-0.011164011 0.07217627 0.59952158
-0.0050544553 0.075027578 0.59607953
0.025004011 0.075102478 0.59298354
0.034126647 0.074751429 0.59702164
-0.0043880311 0.084799185 0.59759295
0.024734773 0.08501251 0.59486043
0.033048704 0.08451625 0.59824497
0.024685167 0.094913855 0.59678102
0.031509172 0.093933955 0.59919441
0.024274534 0.10457134 0.59853762
0.030657314 0.10028579 0.59994382
0.014900087 0.1145185 0.59904277
0.021806104 0.11288047 0.59944797
0.014549106 0.12003013 0.59993863
-0.022705147 0.017633127 0.6062597
-0.014966905 0.016791813 0.60693669
-0.0050041694 0.016838303 0.60661811
0.0050033871 0.016836315 0.60654652
0.024960276 0.016832387 0.60640514
0.034921948 0.016782053 0.60658407
0.045627497 0.017168414 0.60559422
0.050801869 0.017563349 0.60720521
-0.022017121 0.02520871 0.60396731
0.048798375 0.025600437 0.60320824
0.051076524 0.024751807 0.60796434
-0.021890413 0.034664333 0.60558796
-0.019135673 0.03578667 0.60073692
0.04784992 0.034944385 0.60332906
0.050425962 0.035487395 0.60857916
-0.021510942 0.044858769 0.60675603
-0.018452529 0.045348365 0.60180396
0.046775486 0.04514233 0.60359806
0.050134845 0.043275543 0.60931885
-0.021174422 0.054778565 0.60812485
-0.01755107 0.055374175 0.60271358
0.045879498 0.055092305 0.60430729
-0.020572707 0.064885803 0.60905343
-0.016788159 0.065310776 0.60378873
0.044488799 0.065184429 0.60440779
-0.015463104 0.075216867 0.60435098
0.038706418 0.077101037 0.60067052
0.043364316 0.074890018 0.60492688
-0.014536907 0.084875174 0.60523623
-0.0093013868 0.086051829 0.60077828
0.037627652 0.085788906 0.60148305
0.042777766 0.084789447 0.60609907
-0.01385552 0.094680384 0.60642767
-0.0077524628 0.095716029 0.60165238
0.036117945 0.095349312 0.60232228
0.042224161 0.094715074 0.60735732
-0.012904001 0.10456371 0.60739446
-0.0057992679 0.10539812 0.60246873
0.028737014 0.10753608 0.60052949
0.035071295 0.10501234 0.60357434
0.04150214 0.10447931 0.60846925
-0.012055147 0.11470779 0.60863912
-0.0051108026 0.11490871 0.60396677
0.018885965 0.11868702 0.60015333
0.026136752 0.11577293 0.60129321
0.035162907 0.11498179 0.60558802
0.0407928 0.11257654 0.60941303
-0.010518736 0.12407656 0.60925615
-0.0047406717 0.12497512 0.60571623
0.024971416 0.12488142 0.60273331
0.034466624 0.12479485 0.60699236
-0.0044499552 0.13479096 0.60748166
0.02509946 0.13492788 0.6047315
0.033387721 0.13466264 0.60823077
-0.0027976392 0.14443123 0.60850817
0.015198187 0.14516647 0.6050728
0.024821237 0.14490533 0.60659403
0.031330775 0.14458381 0.60898244
0.015120838 0.15519203 0.60704434
0.024426691 0.15473412 0.60839099
0.030096218 0.15153736 0.60962892
0.014616436 0.16495262 0.60895914
0.022316793 0.16318229 0.60941982
0.014262185 0.17061834 0.60989022
-0.024222119 0.015987756 0.61661118
-0.014947087 0.01494488 0.61634499
-0.0048039104 0.014943131 0.61627275
0.034950808 0.014961274 0.61586308
0.045070764 0.014909545 0.61604577
0.052025635 0.016165942 0.61421639
-0.025316212 0.024162816 0.61380178
0.052618917 0.024984146 0.61367047
-0.024641301 0.035936259 0.61275637
0.05213793 0.035309289 0.6138702
-0.024467289 0.04521111 0.61408311
0.051471796 0.04516254 0.61354589
-0.023957904 0.055183269 0.61459696
0.049160004 0.058675133 0.61031985
0.051062945 0.054787453 0.61411136
-0.023020836 0.064756297 0.61407715
0.049162079 0.065586008 0.6116578
0.051188983 0.064652368 0.61633986
-0.022363983 0.074795291 0.61464053
-0.019554073 0.079801761 0.61018848
0.048649188 0.075279973 0.61252016
0.05074513 0.075319387 0.61673588
-0.021814534 0.084928535 0.61531627
-0.019318437 0.086006314 0.61108285
0.048014216 0.085262522 0.61335927
0.050923973 0.084696956 0.61890954
-0.021729037 0.094553307 0.61708826
-0.018595833 0.095473126 0.61199045
0.047413498 0.095202722 0.61439049
-0.021312544 0.10441813 0.61825502
-0.017781211 0.1053056 0.61293113
0.046117619 0.10507677 0.61429286
-0.020922434 0.1137334 0.61940694
-0.016984014 0.11531223 0.61396486
0.044683069 0.11499412 0.61430299
-0.015573474 0.12514301 0.61435926
0.039350957 0.12619264 0.61079967
0.0438959 0.12465225 0.61519402
-0.014132423 0.13488226 0.61477828
-0.0088128829 0.13730344 0.61050946
0.038174819 0.13561581 0.61163938
0.043267049 0.13465099 0.61633152
-0.013377259 0.14474829 0.61590701
-0.0073367995 0.14569737 0.61120129
0.036498234 0.14533895 0.61236197
0.042504039 0.14474635 0.61737651
-0.01255762 0.15482238 0.6170516
-0.0055200551 0.15543635 0.61213422
0.028469389 0.15805334 0.61032408
0.034688409 0.15515798 0.61309552
0.041490503 0.15456465 0.61823827
-0.011700372 0.16467474 0.61822158
-0.0047633518 0.16499427 0.61362278
0.019199191 0.1692699 0.61010689
0.025990952 0.1658769 0.61104614
0.034630734 0.16506544 0.61500001
0.040551048 0.16381393 0.61918229
-0.010685044 0.17380323 0.61920756
-0.0047921389 0.17500648 0.61561245
0.014836256 0.17531361 0.61101019
0.024951154 0.17501041 0.61252475
0.034345701 0.1749299 0.61672181
-0.0043803724 0.18473652 0.61728793
0.01486536 0.18528321 0.61296135
0.025085712 0.18491343 0.61450326
0.03328836 0.18462282 0.61793327
-0.0030376834 0.19440161 0.61847186
0.014861348 0.19514777 0.6148904
0.025152499 0.19494385 0.61648244
0.031791572 0.19400372 0.61889905
-0.001323474 0.20338047 0.6193617
0.015008188 0.20480633 0.61680281
0.024775572 0.20476089 0.61828446
0.030589489 0.2012469 0.61962056
0.014951846 0.21485676 0.6187647
0.022606637 0.21353367 0.61934394
0.013743222 0.22096737 0.61984223
-0.025112161 0.25432327 0.61689919
-0.014959807 0.25431219 0.61687225
-0.0048083183 0.2543011 0.61684549
0.0048080552 0.25429064 0.61681992
0.014957803 0.25427958 0.6167931
0.025106683 0.25426847 0.61676621
0.03486032 0.25427178 0.61666936
0.044995356 0.25423357 0.61678106
0.055014003 0.25423583 0.61668688
-0.022778643 0.013015424 0.62625009
-0.014924737 0.013040002 0.62605906
0.044983368 0.013005105 0.6257534
0.051224768 0.013102204 0.62521046
-0.026356919 0.027433932 0.62105066
-0.026401879 0.03071239 0.62211013
-0.025269922 0.066133671 0.6207754
0.052106429 0.069296174 0.62022328
-0.025354112 0.074986584 0.62284362
0.05223497 0.074855715 0.62175333
-0.024842838 0.084786378 0.62350053
0.05232352 0.085402779 0.62408596
-0.024513762 0.095058404 0.62469971
0.05192678 0.095195733 0.6244939
-0.023528805 0.10528811 0.62341833
0.04997639 0.10263997 0.62045521
0.051336493 0.10498109 0.62465382
-0.023039198 0.11527874 0.6243068
0.048932664 0.11561193 0.62084901
0.050894346 0.11478119 0.62511057
-0.022451188 0.12469723 0.6247673
-0.019883318 0.12843576 0.62046266
0.048600592 0.12554051 0.6220938
0.050883468 0.124256 0.6268847
-0.022195743 0.13486946 0.6261431
-0.019584097 0.13592638 0.62144458
0.047982134 0.13538541 0.6229521
0.050574675 0.1348682 0.6278829
-0.021415096 0.14560126 0.62663782
-0.018569712 0.14514798 0.62179798
0.047330372 0.14524473 0.62390506
0.050702415 0.14174926 0.6294688
-0.020927558 0.15463506 0.62755817
-0.017478272 0.15537144 0.62239408
0.046398085 0.15501828 0.62440282
-0.020414304 0.16412792 0.62852371
-0.016547194 0.16521631 0.62325764
0.044931952 0.16510858 0.62435687
-0.020176714 0.17177503 0.62961811
-0.015393399 0.17523411 0.62403297
0.039052792 0.1773499 0.62050378
0.043710239 0.17484887 0.62475562
-0.0142767 0.18493922 0.62481731
-0.0088672098 0.18755233 0.62047482
0.038085703 0.18586919 0.62134403
0.043152299 0.18473826 0.62596756
-0.013446725 0.19474824 0.62585872
-0.0075518051 0.19601782 0.62126231
0.03658507 0.19544354 0.62217277
0.042520572 0.19472465 0.62713188
-0.012749848 0.20463736 0.62707198
-0.0057402621 0.20537403 0.62210578
0.029120922 0.20814407 0.6203441
0.035221975 0.20510291 0.62320536
0.04176268 0.20472901 0.62824309
-0.011904304 0.21455447 0.62823725
-0.0048538889 0.21500161 0.62353379
0.0198706 0.21965069 0.62006575
0.02669587 0.21582104 0.62104297
0.035158727 0.21501082 0.62511104
0.041151732 0.21311647 0.6293143
-0.010689037 0.22421719 0.62916547
-0.0048263273 0.22508098 0.62550133
0.0047728349 0.22498049 0.62178361
0.01511302 0.22573027 0.62091261
0.025483154 0.22504385 0.62247628
0.03478682 0.22473243 0.62672746
-0.0046004462 0.23477857 0.62727678
0.0049003251 0.2349298 0.62370002
0.015207706 0.23504445 0.62273979
0.025279416 0.23500951 0.62436116
0.033712476 0.23462158 0.62794709
-0.0031318641 0.24440777 0.62837017
0.0049023 0.24501027 0.62568903
0.014607926 0.24508739 0.62466419
0.025052387 0.24500917 0.62628812
0.032317117 0.24417149 0.62899888
-0.025103677 0.25273103 0.62502456
-0.01483951 0.25276449 0.62476945
-0.0046126712 0.25253657 0.62529129
0.0046778605 0.25233504 0.62482214
0.014823502 0.25248948 0.62408489
0.025162984 0.25227016 0.62512767
0.034997456 0.25260878 0.62495613
0.044909429 0.25267717 0.62472409
0.054865688 0.25268883 0.62458241
0.065029748 0.25264785 0.62470818
-0.02166184 0.01132542 0.63484877
-0.014880975 0.011020638 0.6363461
0.044650532 0.011069248 0.63561946
-0.025658775 0.099359661 0.63032794
-0.025733009 0.1051254 0.63215154
0.052992877 0.1076258 0.63077468
-0.025860092 0.11499914 0.6352734
0.053085834 0.11164457 0.63188112
-0.025388045 0.12573819 0.63518226
0.051879581 0.12778828 0.63052362
-0.024664393 0.13538316 0.63282907
0.052048825 0.13533062 0.63258058
-0.024092177 0.14502853 0.63299793
0.0517052 0.14590624 0.63351083
-0.023820665 0.15553845 0.63438463
0.049685936 0.15724839 0.63040638
0.051671162 0.15487674 0.63504052
-0.023058739 0.16499195 0.63431084
0.04951556 0.16577965 0.6317085
0.051546305 0.16394591 0.63619399
-0.022112472 0.17527823 0.63416356
0.048891503 0.17490672 0.63222009
0.050953835 0.17568372 0.63679171
-0.021722553 0.1847315 0.63512373
-0.019119157 0.1868227 0.63070917
0.047920108 0.18554276 0.63246924
0.050516009 0.18411753 0.63742417
-0.021459999 0.1950153 0.63655514
-0.018416995 0.19570963 0.63157654
0.047248472 0.19521786 0.63336134
0.050365642 0.19482341 0.6390304
-0.021089932 0.2046169 0.6378001
-0.017731614 0.20537792 0.63266635
0.046500534 0.20504835 0.63425523
-0.02058495 0.2147034 0.63889873
-0.016795507 0.21534261 0.63351673
0.045122672 0.21519063 0.63432997
-0.015697621 0.22520649 0.63427979
0.039504755 0.22701515 0.63057578
0.044048857 0.2249762 0.63486892
-0.014244447 0.2349395 0.63465112
-0.0091031101 0.23795275 0.6306147
0.038474042 0.23531131 0.63130116
0.043305092 0.2352218 0.63597202
-0.024930825 0.24986193 0.63966411
-0.013817957 0.2451168 0.63607484
-0.0077121407 0.24608479 0.6312483
0.03656524 0.24543528 0.63186711
0.042818658 0.24539919 0.63697201
0.054828931 0.24977639 0.63944519
-0.024712298 0.25096029 0.63405722
-0.015202926 0.25102338 0.63359076
-0.0071081375 0.25124672 0.63115549
0.036439143 0.25114951 0.63149697
0.045204502 0.25091821 0.63369757
0.055005182 0.25087443 0.63384032
-0.026118029 0.13504012 0.64160991
-0.026202526 0.1416053 0.64368558
-0.024955448 0.16803364 0.64029682
0.052750304 0.16658157 0.64110613
-0.025018742 0.17513433 0.64192086
0.052938826 0.17497972 0.64339721
-0.024629537 0.18592975 0.64288741
0.052507497 0.18529549 0.64377642
-0.024563989 0.19482411 0.64453059
0.051789999 0.19491158 0.6429711
-0.023850327 0.20466708 0.64438629
0.051233038 0.20482683 0.64335847
-0.022864036 0.21522173 0.64376843
0.049417827 0.21544203 0.64109462
0.051475264 0.21484382 0.64598519
-0.022215137 0.22477143 0.64430207
0.048980974 0.22547135 0.64214766
0.051068325 0.22436053 0.64635921
-0.021846119 0.23491128 0.64534599
-0.019429024 0.23537108 0.64093131
0.048516996 0.23520781 0.6431998
0.051086307 0.23466276 0.64817399
-0.024305899 0.24726543 0.64563459
-0.018659299 0.24557389 0.64169419
0.047833864 0.24561769 0.6435557
0.055035718 0.24832851 0.64527917
0.015310102 0.0073715881 0.65470588
-0.025354316 0.20790583 0.65053082
-0.025437653 0.21481042 0.65266913
-0.025290815 0.22567056 0.65468103
0.052458994 0.22563314 0.65127659
-0.024924146 0.23464605 0.65493876
0.052663062 0.23500419 0.65381014
-0.034832414 0.24681002 0.65531981
-0.026419515 0.24625194 0.6541872
0.055293642 0.24609789 0.65444821
-0.025737403 0.23964381 0.66035992
-0.027617356 0.24450098 0.66424668
0.057018422 0.24476907 0.66497999
