# .PCD v0.7 - Point Cloud Data file format
VERSION 0.7
FIELDS x y z
SIZE 4 4 4
TYPE F F F
COUNT 1 1 1
WIDTH 95
HEIGHT 1
VIEWPOINT 0 0 0 1 0 0 0
POINTS 95
DATA ascii
-0.023491159 0.11885407 0.63800001
-0.030762233 0.12416755 0.63800001
-0.024636663 0.12468801 0.63723963
-0.015683154 0.1252449 0.63723886
-0.0095083266 0.12696412 0.63800001
-0.022711273 0.1333078 0.63739288
-0.01681219 0.13440485 0.63736361
-0.013649043 0.099529058 0.64875001
-0.040395919 0.10753281 0.64899999
-0.034715321 0.10612658 0.64674062
-0.025103841 0.10647597 0.64393747
-0.015069195 0.10527284 0.64440662
-0.0056817145 0.10607737 0.64455706
0.0014948761 0.10769858 0.64627272
-0.041748106 0.11549041 0.64774197
-0.034785278 0.114602 0.64193499
-0.025806788 0.11459894 0.64117122
-0.01451783 0.11404859 0.64084214
-0.0050007319 0.11517967 0.64128017
0.0030613928 0.11438095 0.64433306
-0.051186591 0.12853444 0.64874995
-0.043293469 0.12557615 0.64734
-0.034995366 0.12498038 0.64181155
-0.028838826 0.12433236 0.63999993
-0.012278404 0.12206098 0.64078563
-0.0048923441 0.12506802 0.64145917
0.002508512 0.12512302 0.64610523
-0.050559118 0.13009031 0.648
-0.043368831 0.13278133 0.64803034
-0.034971654 0.13479979 0.64334369
-0.026461914 0.13585636 0.64106113
-0.013194363 0.13521962 0.64096981
-0.0052155615 0.13479838 0.64333791
0.0017532598 0.13449353 0.64800006
-0.033602994 0.1443893 0.64779174
-0.025205757 0.14508849 0.6455245
-0.015075942 0.14545429 0.64649218
-0.0053694858 0.14412124 0.64679354
0.00085343496 0.1416702 0.64899999
-0.030154701 0.15191142 0.64900005
-0.025300629 0.15212695 0.64824146
-0.015358518 0.15131666 0.64888889
-0.035777424 0.099832386 0.65824997
-0.012440776 0.098161235 0.65100002
-0.0061523453 0.098305516 0.65696144
0.0024784394 0.098176189 0.6585294
-0.043962449 0.10555558 0.65415215
-0.036326963 0.10222613 0.65527999
-0.0038135375 0.10233409 0.65499997
0.0043913103 0.10573518 0.65581989
0.01094343 0.10885833 0.65700001
-0.045864206 0.1158485 0.65095454
0.0080916034 0.11537855 0.65748286
0.012415498 0.11731802 0.65866667
-0.050715163 0.12422365 0.64999998
-0.047520135 0.12362333 0.65074068
0.0077135512 0.1244365 0.65154546
0.012086805 0.12201244 0.6563077
-0.044683788 0.1367933 0.65259987
0.0060842372 0.13493741 0.65092677
-0.042085808 0.14249831 0.65312499
-0.037570573 0.14653118 0.65150005
-0.017095 0.14416783 0.64999998
-0.00056983327 0.14416783 0.64999998
0.0034248445 0.14108196 0.65066671
-0.034517132 0.15257311 0.65353841
-0.015385498 0.15328515 0.65000004
-0.034896545 0.16908275 0.65826309
-0.0046628551 0.16951838 0.65823078
-0.035067547 0.17257386 0.6537776
-0.024327464 0.17213231 0.65469235
-0.042571284 0.098352291 0.66280007
-0.035113905 0.098250195 0.66317654
-0.025613844 0.097503722 0.66745442
-0.014958388 0.097766034 0.66619998
-0.0043394202 0.09624397 0.66281831
0.00057947665 0.095613651 0.66100001
-0.044844694 0.10131688 0.66129422
-0.033493932 0.10137524 0.66266674
-0.025424358 0.10310814 0.66687793
-0.018632172 0.10235133 0.66714293
-0.0019315889 0.10140841 0.66100001
0.0046358132 0.10082894 0.66100001
0.0098660057 0.11374925 0.662
0.01263481 0.11549329 0.66113341
-0.031915426 0.095154904 0.67242867
-0.022968091 0.093954533 0.67334783
-0.015191338 0.094304986 0.67243057
-0.006663674 0.09449663 0.67244995
-0.0299557 0.10631336 0.67000002
-0.017033633 0.1004397 0.67000002
-0.004806642 0.15803976 0.67693096
-0.02794187 0.16236493 0.67000002
-0.010928039 0.16315575 0.67188889
-0.039344802 0.15916759 0.68000001
