# .PCD v0.7 - Point Cloud Data file format
VERSION 0.7
FIELDS x y z
SIZE 4 4 4
TYPE F F F
COUNT 1 1 1
WIDTH 113
HEIGHT 1
VIEWPOINT 0 0 0 1 0 0 0
POINTS 113
DATA ascii
-0.1221642 0.018335408 0.52926463
-0.11476076 0.01704778 0.52857554
-0.10604022 0.017637182 0.52896398
-0.1240567 0.025392242 0.52831763
-0.11496755 0.025104098 0.52654535
-0.10497618 0.025183579 0.52738583
-0.098408379 0.026160963 0.52937031
-0.12392954 0.03494085 0.52838099
-0.11494579 0.035124645 0.52664572
-0.10495878 0.035096526 0.52749771
-0.09851066 0.03396222 0.52937555
-0.12192364 0.041722964 0.52936918
-0.11476855 0.042938896 0.52873093
-0.10636577 0.04248292 0.52907729
-0.1312626 0.0093424898 0.53933889
-0.12414976 0.0072710789 0.53699845
-0.11486778 0.0061195861 0.53561264
-0.10534727 0.0065534133 0.53622752
-0.09743271 0.0083712451 0.53809285
-0.13326392 0.015989866 0.53648394
-0.12550086 0.014489694 0.53244972
-0.1151448 0.012081706 0.53100681
-0.10417821 0.013259983 0.53156328
-0.095168605 0.015466148 0.53475332
-0.088923156 0.017640578 0.53854245
-0.13457304 0.025176976 0.53440523
-0.12859972 0.022974867 0.53055656
-0.093725249 0.024884339 0.53229326
-0.087639764 0.025039226 0.53739995
-0.13467866 0.034786742 0.5345614
-0.12838694 0.037167035 0.53059262
-0.093767576 0.035248388 0.53238422
-0.08767423 0.034619596 0.53739178
-0.13316257 0.044057328 0.5367046
-0.12544595 0.045542907 0.53270978
-0.11506274 0.047733746 0.53116459
-0.10413059 0.046581939 0.53173596
-0.095253408 0.044680409 0.53503221
-0.088896804 0.041917343 0.53859586
-0.13030097 0.050906111 0.53922737
-0.12384737 0.052642904 0.53717452
-0.1147622 0.053631227 0.5358085
-0.10533384 0.053231705 0.53642982
-0.097698152 0.051661175 0.53837901
-0.12256413 -0.00094950182 0.5476386
-0.11466725 -0.0016385625 0.54611909
-0.10570548 -0.0012116991 0.5467751
-0.09945292 -0.0004758513 0.54941404
-0.13352446 0.0068078553 0.54519272
-0.12564802 0.0028069443 0.54324424
-0.11510215 0.00099835033 0.54146636
-0.10408173 0.0017115432 0.54232383
-0.094946094 0.0050663874 0.54450524
-0.088636175 0.0086877188 0.54727829
-0.14140749 0.016767506 0.54604447
-0.13758132 0.013883617 0.54244381
-0.091026001 0.011397574 0.54081529
-0.085818663 0.015209753 0.54480392
-0.14237015 0.025094023 0.54342067
-0.13995022 0.021998864 0.54041934
-0.082811214 0.024868 0.54432863
-0.14227751 0.034876749 0.54337811
-0.13987587 0.036957171 0.54013228
-0.082908869 0.035095405 0.54425979
-0.14160758 0.042754162 0.54641372
-0.13747202 0.046215963 0.54290169
-0.091074608 0.048584118 0.5411045
-0.086132713 0.044839844 0.54479182
-0.13277841 0.052807912 0.54433912
-0.1255172 0.056853466 0.54345304
-0.11538319 0.058923297 0.5421645
-0.10449423 0.058178246 0.54275566
-0.095008321 0.05443934 0.54442012
-0.088997491 0.051583581 0.5478276
-0.1222991 0.060439162 0.5473094
-0.11450411 0.06150328 0.54689425
-0.10534364 0.061031587 0.5477469
-0.12443124 -0.0020767364 0.55326498
-0.11485668 -0.0039267158 0.55269682
-0.1048795 -0.003197371 0.55337036
-0.097977951 -0.0011482293 0.55518717
-0.13361804 0.003350547 0.55214405
-0.12961155 0.00047827142 0.5522083
-0.092933245 0.0022217683 0.55363703
-0.087384246 0.0070174239 0.55424011
-0.14247502 0.013862764 0.55201972
-0.13993751 0.010029651 0.55143589
-0.082563803 0.014428068 0.55382222
-0.079734638 0.019329101 0.55794525
-0.14537869 0.023355922 0.55033791
-0.08040829 0.020858012 0.55152458
-0.079034947 0.02557038 0.55438054
-0.080413327 0.038917501 0.55199707
-0.079075865 0.034022067 0.55425972
-0.1409243 0.04824866 0.55155951
-0.082592227 0.04508891 0.5537948
-0.079823449 0.040638216 0.55856669
-0.13369741 0.055866629 0.55130768
-0.093356982 0.057293516 0.55277538
-0.0876505 0.052650832 0.55408448
-0.12334591 0.061676167 0.55200738
-0.11462119 0.063416623 0.55259883
-0.10479057 0.062621444 0.55333096
-0.098556601 0.060670424 0.55375832
-0.10556518 -0.0043782792 0.56168061
-0.092434317 0.0014595438 0.56170529
-0.087536745 0.0058382852 0.56151068
-0.081854522 0.014101475 0.56143838
-0.079630136 0.019539524 0.56405103
-0.078500859 0.024416272 0.56156772
-0.078518651 0.03512726 0.5616892
-0.081719577 0.045238242 0.56162065
-0.08643198 0.052441716 0.56064123
