# .PCD v0.7 - Point Cloud Data file format
VERSION 0.7
FIELDS x y z
SIZE 4 4 4
TYPE F F F
COUNT 1 1 1
WIDTH 315
HEIGHT 1
VIEWPOINT 0 0 0 1 0 0 0
POINTS 315
DATA ascii
0.81478542 -0.095020749 0.82073414
0.8250677 -0.094991133 0.82076639
0.83587122 -0.095087685 0.82080084
0.84562242 -0.094937846 0.82083148
0.79466683 -0.084823862 0.82067001
0.80454755 -0.084972762 0.82070136
0.81472135 -0.085040644 0.82073313
0.82528871 -0.084943771 0.82098043
0.8348875 -0.085163757 0.82148653
0.84544712 -0.086773492 0.82083076
0.85543752 -0.087566912 0.82086229
0.79457462 -0.074974418 0.82066923
0.8044979 -0.074960753 0.82070059
0.81532776 -0.074182048 0.82292944
0.82321161 -0.077745333 0.82419068
0.78514874 -0.064967357 0.82063901
0.79466814 -0.065125763 0.82066917
0.80579221 -0.064142145 0.82259637
0.81162196 -0.067524537 0.82477802
0.78505766 -0.054998506 0.8206383
0.79466903 -0.055137336 0.82066852
0.80420375 -0.054968026 0.82408273
0.78510386 -0.045031 0.820638
0.79466963 -0.045148898 0.82066828
0.80263054 -0.044694375 0.8242777
0.78505874 -0.034954939 0.82063752
0.79466993 -0.035160419 0.82066804
0.80329204 -0.034676161 0.82433385
0.78501338 -0.024880765 0.82063711
0.79467088 -0.025171932 0.82066751
0.80591547 -0.02463517 0.82381433
0.7946716 -0.015183423 0.82066727
0.80460328 -0.014894109 0.82069862
0.81406718 -0.014538093 0.82438701
0.79467231 -0.0051948857 0.82066679
0.80455333 -0.0049978271 0.82069826
0.8146944 -0.0047991793 0.82073027
0.82430512 -0.0056795878 0.82321942
0.83466381 -0.0029316014 0.82349187
0.8461259 -0.0014052524 0.82082939
0.85566807 -0.0014509958 0.82085961
0.86596674 -0.0017558094 0.8208921
0.80439848 0.0047750748 0.82069725
0.81479907 0.0050465497 0.82073021
0.82512826 0.0052332035 0.82076275
0.83584428 0.0049973489 0.82079685
0.84548527 0.0050653741 0.82082707
0.85566854 0.0051622214 0.82085931
0.83584493 0.014962077 0.82079637
0.8294903 -0.080110438 0.8315354
0.83207512 -0.081087396 0.83864564
0.81671882 -0.072674498 0.83504188
0.82401556 -0.077623509 0.83540988
0.80832684 -0.062634431 0.83480728
0.81187993 -0.067766607 0.83508575
0.80501217 -0.055080649 0.83520603
0.80306149 -0.045199685 0.83503795
0.80363774 -0.035297774 0.83492339
0.80708492 -0.025099335 0.83484924
0.80992573 -0.019944599 0.83825886
0.81453562 -0.014658274 0.83496076
0.82470512 -0.0071585737 0.83502144
0.83511037 -0.0034738041 0.83482879
0.82964808 -0.0801837 0.84636116
0.83085668 -0.0806337 0.84251928
0.81633854 -0.072379373 0.84519202
0.8233223 -0.077298157 0.84533191
0.80824023 -0.062556684 0.84538192
0.81157273 -0.067421809 0.84452713
0.80490059 -0.054771986 0.84496772
0.8029896 -0.044683684 0.84517288
0.80370265 -0.03482775 0.84492761
0.8070212 -0.025107289 0.84495836
0.80997515 -0.019849291 0.84140968
0.8144089 -0.014805371 0.84514982
0.82514346 -0.0069057331 0.84502518
0.83623761 -0.0033357609 0.84469676
0.83124065 -0.080790989 0.85638696
0.81670374 -0.072717585 0.85516846
0.82399714 -0.077653497 0.85494971
0.80825502 -0.06262935 0.8548727
0.81178588 -0.067707509 0.8548975
0.80498409 -0.055148453 0.85510731
0.8030057 -0.045280073 0.85510778
0.80364454 -0.035022065 0.85484517
0.80709451 -0.02490171 0.8550517
0.81400579 -0.015127835 0.85492438
0.81990802 -0.0099120429 0.8551296
0.82480878 -0.007059793 0.85486722
0.83313364 -0.0039182296 0.85576594
0.84142786 -0.0027771101 0.85520262
0.82956445 -0.080166742 0.86162418
0.83209312 -0.081122428 0.8685323
0.81663251 -0.072670646 0.86503983
0.82383108 -0.077573605 0.86498368
0.80823171 -0.062624037 0.8653608
0.81168389 -0.067633606 0.86508739
0.8048057 -0.054664161 0.86506635
0.80293542 -0.04477118 0.86493957
0.80360663 -0.034964141 0.86494935
0.80707419 -0.024928465 0.86499619
0.81417006 -0.014918288 0.86498088
0.82375497 -0.0076056975 0.86495036
0.8327083 -0.0040096631 0.86511725
0.84396851 -0.0026885932 0.86481148
0.82948256 -0.080150142 0.87654865
0.83090132 -0.080678545 0.87219203
0.81631488 -0.072430082 0.87508559
0.82330239 -0.077339008 0.87508249
0.80820316 -0.062654875 0.87503827
0.81153911 -0.067478999 0.87483495
0.80495054 -0.055210728 0.87519193
0.80294752 -0.045277659 0.87480706
0.80357134 -0.035061259 0.87518519
0.80695367 -0.025055312 0.87500137
0.80985743 -0.019869952 0.87544858
0.81434149 -0.014705895 0.87503016
0.82414263 -0.0073763602 0.87489086
0.83325964 -0.0038720493 0.87505662
0.83104086 -0.080744185 0.88620061
0.81667781 -0.072765008 0.88468874
0.82374913 -0.077564828 0.8850016
0.80818415 -0.062632553 0.8848899
0.81175053 -0.067781247 0.88513345
0.80479413 -0.054832704 0.88509077
0.80287647 -0.044735584 0.88508207
0.80355811 -0.034973338 0.88486451
0.80692595 -0.025072934 0.88520145
0.80996317 -0.019666912 0.88199258
0.81436169 -0.014688415 0.88514239
0.82446826 -0.0071947114 0.88491803
0.83418918 -0.0036456839 0.88516188
0.82940257 -0.080133922 0.89114571
0.83164239 -0.080981649 0.89854777
0.81657678 -0.072691008 0.89498276
0.8239705 -0.077704184 0.89476031
0.8082251 -0.062776111 0.89534992
0.81169343 -0.067751214 0.89497381
0.80485523 -0.055086803 0.89504945
0.80287367 -0.045037273 0.89510196
0.80349708 -0.035088997 0.89514989
0.80696046 -0.024960104 0.89502645
0.81421131 -0.014812618 0.89482337
0.8196969 -0.0099637974 0.89833015
0.82479602 -0.0069877929 0.89494193
0.83462191 -0.003535738 0.89513743
0.82932425 -0.080118045 0.90542614
0.83047879 -0.080548152 0.90200043
0.81637287 -0.072550535 0.90527004
0.8234427 -0.077448234 0.90464604
0.80813086 -0.062637679 0.90491772
0.81152487 -0.067580074 0.90481484
0.80474675 -0.054853398 0.90509456
0.80283713 -0.045020077 0.90519369
0.80354446 -0.034745611 0.90514112
0.80697787 -0.024823781 0.90482533
0.80973595 -0.019907493 0.90723193
0.81409556 -0.014848258 0.90488744
0.8198818 -0.0098165609 0.90467864
0.82501793 -0.0068722661 0.90502566
0.83581114 -0.0033260493 0.90487623
0.82970321 -0.080272235 0.91807139
0.83107924 -0.080784962 0.91405702
0.81655753 -0.072738297 0.91482687
0.82348555 -0.077489674 0.91476935
0.80811232 -0.062657788 0.91507137
0.8117072 -0.067830294 0.91508389
0.80472159 -0.054901477 0.91506606
0.80280614 -0.044941414 0.9146114
0.8034445 -0.035054237 0.91508913
0.80677807 -0.025189979 0.91500872
0.8098678 -0.019655714 0.91514844
0.81429696 -0.014610263 0.91498518
0.82421708 -0.0072898706 0.91471934
0.83389527 -0.0037730332 0.91481924
0.84109372 -0.0027716106 0.91654992
0.82902175 -0.080018066 0.92006254
0.83121282 -0.080847554 0.92722607
0.81656194 -0.072742723 0.92480201
0.82393497 -0.077722251 0.92472935
0.8082065 -0.062867694 0.92516088
0.81165075 -0.06781438 0.92510283
0.80474997 -0.05502186 0.92501223
0.80277997 -0.045046732 0.92485571
0.80343068 -0.035005949 0.9249655
0.80690342 -0.024879022 0.92497915
0.80997968 -0.019441999 0.92186832
0.81419396 -0.014716294 0.92512089
0.82399297 -0.0073626726 0.92496359
0.83274436 -0.003949339 0.92493886
0.84339738 -0.0026927628 0.92498726
0.82939982 -0.080171607 0.93243003
0.83179474 -0.081077009 0.93886578
0.81634331 -0.072579451 0.93528074
0.82352072 -0.077525817 0.93476242
0.80809253 -0.062721625 0.93507314
0.8114754 -0.06763044 0.93474716
0.80468071 -0.054919135 0.93524683
0.8027488 -0.044948097 0.93459141
0.80341315 -0.03492954 0.93499786
0.80683488 -0.024948966 0.934995
0.80962968 -0.0199256 0.93804002
0.81429595 -0.014598787 0.93492889
0.81951624 -0.0099993404 0.93936819
0.82428098 -0.0071899006 0.93505704
0.83344603 -0.0037763561 0.93490356
0.84483075 -0.0026437044 0.93023682
0.82954764 -0.080238983 0.94520926
0.83066595 -0.08065623 0.94204998
0.81654096 -0.072797403 0.94521785
0.82372123 -0.077645667 0.94508421
0.80806226 -0.062728219 0.94500381
0.81161451 -0.067824796 0.9449231
0.80467683 -0.055003241 0.94489157
0.80271715 -0.045011383 0.9450714
0.80332649 -0.035220832 0.9450289
0.80670899 -0.02514033 0.94505918
0.80974972 -0.019697281 0.94504803
0.81400096 -0.014796716 0.94497353
0.81967974 -0.009869569 0.94479108
0.82477331 -0.0069119348 0.9451111
0.83413774 -0.0036056307 0.94473672
0.82947242 -0.080222905 0.95835423
0.83102459 -0.080802105 0.95404255
0.81635565 -0.072646514 0.95469779
0.82330358 -0.077448674 0.95511127
0.80810755 -0.062840059 0.95491493
0.81155777 -0.067801245 0.95513916
0.8045994 -0.05483932 0.9550783
0.80267447 -0.044802267 0.954907
0.80340523 -0.034678049 0.95503557
0.80681902 -0.024853056 0.95503265
0.80991393 -0.019385008 0.95463318
0.81419957 -0.014569933 0.95499426
0.81990683 -0.0096893534 0.95232183
0.8246758 -0.0069755851 0.9553616
0.83486062 -0.0034279928 0.95497364
0.83093405 -0.080780193 0.96703357
0.81638277 -0.072686873 0.96493113
0.82394582 -0.07778053 0.96474421
0.80810106 -0.06286297 0.96508211
0.81156838 -0.06786453 0.96494913
0.80463594 -0.055059657 0.96502149
0.80266774 -0.045103945 0.96496272
0.80324692 -0.035302445 0.96492231
0.80667746 -0.025106294 0.96488297
0.80953753 -0.019925619 0.96790475
0.81413323 -0.014649328 0.96493906
0.82443082 -0.0070986021 0.96492386
0.83571672 -0.003372462 0.96551609
0.82961673 -0.080288507 0.97063291
0.83684868 -0.080936015 0.97081679
0.8447752 -0.081267156 0.97084087
0.85065401 -0.080744639 0.97085881
0.81718367 -0.072005324 0.97062838
0.82571608 -0.074611291 0.97075665
0.83614063 -0.074959598 0.97081417
0.84523916 -0.074896641 0.97084135
0.85425502 -0.074853957 0.97086853
0.86406898 -0.072829984 0.9708972
0.8084932 -0.062287804 0.97056782
0.81529933 -0.064987443 0.97072428
0.82563031 -0.065054208 0.9707824
0.83614367 -0.065002367 0.97081327
0.84505171 -0.064812437 0.97083944
0.85440475 -0.065150872 0.9708674
0.86569506 -0.06509532 0.97090089
0.87414384 -0.063292243 0.97092527
0.80637002 -0.054584 0.9705838
0.81543696 -0.054937627 0.97075099
0.82563508 -0.054904435 0.97078091
0.83614904 -0.05504505 0.97081172
0.84515268 -0.054989479 0.97083837
0.85427684 -0.055108897 0.97086543
0.86583859 -0.055079214 0.97089964
0.87563807 -0.055019625 0.97092885
0.80565709 -0.045135129 0.97068501
0.81532818 -0.044941202 0.97074842
0.82552195 -0.044927835 0.9707787
0.83603084 -0.044914093 0.97080988
0.84525388 -0.04516232 0.97083706
0.8545506 -0.045069221 0.97086465
0.8659845 -0.045057256 0.97089815
0.87564683 -0.045047332 0.9709264
0.88165724 -0.043923359 0.97094381
0.80588627 -0.035137665 0.97061288
0.81545037 -0.034944206 0.97074682
0.82576674 -0.034947976 0.97077739
0.83628786 -0.034954548 0.97080868
0.84506738 -0.035085898 0.97083491
0.8544215 -0.035026953 0.97086263
0.86585009 -0.035035122 0.97089654
0.87565041 -0.035074301 0.97092533
0.88166136 -0.037778743 0.97094268
0.80769283 -0.025688177 0.97061771
0.81557375 -0.024941973 0.97074461
0.82565618 -0.024970992 0.97077465
0.83604336 -0.025002612 0.97080618
0.84526616 -0.024984827 0.97083354
0.85429281 -0.024990056 0.97086084
0.86585665 -0.02501392 0.97089463
0.8752594 -0.025742415 0.97092247
0.80958301 -0.019839531 0.97048575
0.81575608 -0.01571252 0.97061574
0.8255412 -0.014998867 0.97077292
0.83629996 -0.015035377 0.97080505
0.84508044 -0.014913605 0.97083122
0.8544327 -0.015124609 0.97085953
0.86521471 -0.01541785 0.97089189
0.87367278 -0.018895045 0.97091651
0.82603246 -0.007808934 0.97066098
0.83578837 -0.0065656449 0.97076672
0.84485358 -0.0059209913 0.97081876
0.8539384 -0.0075024734 0.97085655
0.86199975 -0.008452516 0.97088122
