# .PCD v0.7 - Point Cloud Data file format
VERSION 0.7
FIELDS x y z
SIZE 4 4 4
TYPE F F F
COUNT 1 1 1
WIDTH 456
HEIGHT 1
VIEWPOINT 0 0 0 1 0 0 0
POINTS 456
DATA ascii
0.75282168 -0.011691744 0.82053417
0.75463426 -0.0049764081 0.82053983
0.77058464 -0.00054159481 0.8205899
0.78506339 0.014878215 0.82063496
0.79430318 0.016272446 0.82135761
0.77467167 0.024696181 0.8206017
0.78506404 0.02473557 0.82063472
0.79480964 0.024651892 0.82081264
0.80434775 0.024830664 0.82161719
0.82200098 0.02871426 0.82075119
0.77467239 0.034951374 0.82060105
0.78497332 0.034709707 0.82063413
0.79467636 0.03476065 0.8206647
0.8045572 0.034933053 0.82069618
0.81469858 0.035109989 0.82072794
0.73876399 -0.0017258184 0.83911246
0.75641936 0.0037944766 0.83425558
0.76144761 0.0089291781 0.83730119
0.76449382 0.012036267 0.83914226
0.77835339 0.012847971 0.83095157
0.78261024 0.017135644 0.83345681
0.78743857 0.021998793 0.83629817
0.79176861 0.026360108 0.83884633
0.80808228 0.028727688 0.83096099
0.80978787 0.030423269 0.83193702
0.81494462 0.035549793 0.83488774
0.70904672 -0.0090575609 0.8497237
0.72578818 -0.0030924291 0.8460263
0.72946781 0.00076185726 0.84837484
0.73085994 0.0022160038 0.84925872
0.74501181 0.0047369166 0.8429991
0.75330091 0.013296333 0.84813875
0.76807117 0.01568519 0.8413043
0.77115595 0.01883151 0.84316862
0.77634507 0.024124395 0.84630483
0.78157598 0.029459806 0.8494662
0.79449165 0.029102778 0.84044886
0.79778177 0.03241669 0.84238511
0.80222273 0.037728082 0.84621584
0.80645418 0.04133324 0.84833288
0.81504095 0.045057375 0.84820664
0.81363028 -0.1014292 0.85644913
0.78994143 -0.090981454 0.85891199
0.79509676 -0.093268521 0.85811615
0.805035 -0.09762463 0.85760945
0.81013852 -0.099848181 0.85760939
0.77468812 -0.084317535 0.85926455
0.78415287 -0.088456646 0.85896587
0.76361215 -0.079454564 0.85998935
0.68838447 -0.034406628 0.85811698
0.68846554 -0.025391575 0.85706127
0.68854243 -0.016841415 0.85807395
0.69619179 -0.01153437 0.8551774
0.69914889 -0.0083675068 0.85715103
0.70368463 -0.0057699881 0.85736912
0.71389145 -0.0039254427 0.85288727
0.71878338 0.0012491439 0.85607308
0.72238022 0.0050488864 0.85840982
0.73506236 0.0066057234 0.85192704
0.73790085 0.012061585 0.85715699
0.74507183 0.016199665 0.85803431
0.75514233 0.018929666 0.85473418
0.75698942 0.021489315 0.85781205
0.76505041 0.02454327 0.85656786
0.77473408 0.028763687 0.8562513
0.77972102 0.030967776 0.85893315
0.78470993 0.032786969 0.85494894
0.79497379 0.037093896 0.85511321
0.80149931 0.039964534 0.85835612
0.80578011 0.041567769 0.85501719
0.81434053 0.045117907 0.85505801
0.81484663 -0.10149558 0.86546314
0.78926176 -0.090419449 0.86408252
0.79485792 -0.092807822 0.86505032
0.80480748 -0.097149126 0.86492848
0.76734591 -0.08079388 0.86557829
0.77437752 -0.083896734 0.86481684
0.78359288 -0.08788611 0.86531621
0.74703097 -0.071940027 0.86563253
0.75596315 -0.075845204 0.86536914
0.76301885 -0.078908809 0.8655749
0.72569168 -0.062565796 0.86712551
0.73546201 -0.066851847 0.86655885
0.74208546 -0.06972678 0.86677021
0.69811773 -0.050469946 0.86872244
0.70523006 -0.053584069 0.86842388
0.71540219 -0.058056027 0.8676461
0.68836915 -0.042481642 0.86658591
0.69424599 -0.048771482 0.86894721
0.6883772 -0.034963191 0.86507362
0.68846744 -0.024947505 0.86501658
0.68855697 -0.014972961 0.865004
0.68882728 -0.008012644 0.86689913
0.6952613 -0.0036874386 0.86740279
0.70296448 -0.0012162208 0.86495292
0.70644617 0.00095956359 0.86659414
0.71489054 0.0044715586 0.86621964
0.72491431 0.0085567636 0.8651607
0.72986859 0.010830709 0.86918616
0.73491275 0.01269602 0.86478007
0.74525046 0.016997553 0.86511487
0.75124443 0.019480195 0.86508316
0.75614971 0.021492772 0.86468315
0.76474863 0.025084553 0.86522734
0.77358919 0.028722523 0.86471683
0.77878577 0.030910188 0.86537975
0.78515774 0.033538986 0.865143
0.79518753 0.037697684 0.86517537
0.80061054 0.039869174 0.86368865
0.80586797 0.042116165 0.86501628
0.8146807 0.045770962 0.86505926
0.81526965 -0.10121409 0.87452191
0.79538578 -0.092515416 0.87520963
0.80531961 -0.096877076 0.87455797
0.81145388 -0.0994813 0.87588751
0.76884276 -0.080985166 0.8745417
0.77548248 -0.083821058 0.87564939
0.78465217 -0.087882422 0.87436295
0.74633545 -0.071163088 0.87484801
0.75499809 -0.07492613 0.87506652
0.76365066 -0.078683838 0.87530208
0.72513664 -0.061918337 0.87501574
0.73491633 -0.066181511 0.87497061
0.74137145 -0.068989024 0.87506694
0.69792432 -0.050158538 0.8731451
0.70520043 -0.053233605 0.87499458
0.71576941 -0.057834689 0.87506378
0.68842751 -0.043303069 0.87498468
0.69419152 -0.048409805 0.87553388
0.68837279 -0.035066634 0.87517166
0.68846339 -0.02500907 0.87514943
0.68855357 -0.014947822 0.87511796
0.68876982 -0.0075562391 0.87527186
0.69547874 -0.0031331319 0.87483531
0.70150566 -0.00061217364 0.87528706
0.70638365 0.0014075283 0.87524885
0.71480972 0.0048802998 0.87486887
0.72350019 0.0084773265 0.8747741
0.7287882 0.01072099 0.87578917
0.73509091 0.013291624 0.87497658
0.74454296 0.017226368 0.8753131
0.75031096 0.019500254 0.87303305
0.75584239 0.021906782 0.87525815
0.76517498 0.025768425 0.87513435
0.77306098 0.028982749 0.87407643
0.77806079 0.031170016 0.87632346
0.78471869 0.033855628 0.87488222
0.79465216 0.037958849 0.87461138
0.80499583 0.042290237 0.87547654
0.81458783 0.046231315 0.87480271
0.81534648 -0.10072437 0.88469571
0.79553968 -0.092099756 0.88459718
0.8049385 -0.096164517 0.88518447
0.81176353 -0.099139735 0.88515478
0.76828927 -0.080309764 0.88298529
0.77533543 -0.083276369 0.88499516
0.7850737 -0.087498777 0.88539428
0.79026741 -0.089759938 0.88542789
0.74720734 -0.071032636 0.88477731
0.75399399 -0.073969081 0.88517332
0.76357013 -0.078131549 0.88536131
0.72616488 -0.061605163 0.88535058
0.73381054 -0.064996541 0.88582057
0.74208355 -0.068792872 0.8849231
0.70606583 -0.052080229 0.88501918
0.71501982 -0.055776436 0.88643992
0.72210908 -0.059179541 0.88720888
0.68860358 -0.042474978 0.88367957
0.69484442 -0.045527358 0.88596636
0.70252699 -0.048452266 0.88774067
0.68837738 -0.034908317 0.88523906
0.68846017 -0.024982503 0.88510847
0.68858105 -0.015128878 0.88509947
0.69088286 -0.010684868 0.88888204
0.68891925 -0.0084573599 0.88276035
0.69504505 -0.006020545 0.88485885
0.70390183 -0.002600804 0.88635904
0.71088386 -0.0009116265 0.88909274
0.70727074 0.0012169011 0.88284516
0.71515912 0.003466578 0.88539249
0.72407663 0.0071863388 0.88647074
0.73090219 0.0090891756 0.88896549
0.72801131 0.010453771 0.88346148
0.73515666 0.012735867 0.88573307
0.74502289 0.01715086 0.88588041
0.75140381 0.019331722 0.88883477
0.75534189 0.021886712 0.88564569
0.76459444 0.025875498 0.88562649
0.77219683 0.029154083 0.88501722
0.77717459 0.031263631 0.88542128
0.78502405 0.034503013 0.88505429
0.79441822 0.038373694 0.88460815
0.79946887 0.04058456 0.88690341
0.80470514 0.042659622 0.88504314
0.81418449 0.0465996 0.88526207
0.81663013 -0.10075598 0.89495689
0.79521328 -0.091272734 0.89576674
0.8045885 -0.095515095 0.89471257
0.81253695 -0.098970376 0.89500016
0.77560604 -0.082118519 0.89533889
0.78498018 -0.086258456 0.89627498
0.79113495 -0.088405907 0.89939374
0.74836159 -0.070868984 0.89148158
0.75576717 -0.07231307 0.89482725
0.76461023 -0.07622695 0.89582956
0.77212852 -0.078823499 0.89814109
0.72863615 -0.060606837 0.89070404
0.73619705 -0.062659487 0.8933692
0.74465895 -0.065673046 0.89546531
0.75273508 -0.068272777 0.89781523
0.71643901 -0.052068032 0.89284289
0.7248807 -0.054896113 0.89515835
0.73362052 -0.057932205 0.89742202
0.69676065 -0.041707426 0.89208597
0.70534968 -0.044256929 0.89469421
0.71358764 -0.047321372 0.89672273
0.72085351 -0.049075965 0.89955986
0.68872136 -0.034036849 0.89172
0.69494653 -0.034942068 0.89514536
0.70313472 -0.035959348 0.89854825
0.68867785 -0.025020748 0.89271718
0.6950025 -0.024905456 0.89712316
0.70122319 -0.024787704 0.89951742
0.68891585 -0.01660765 0.89139825
0.69521701 -0.015067025 0.89419627
0.70408869 -0.014154022 0.89789975
0.71052355 -0.011444638 0.89975643
0.697384 -0.0090428973 0.89131922
0.70577514 -0.0067565632 0.89396262
0.71417493 -0.0040483163 0.89610785
0.72272575 -0.00098225626 0.89825839
0.71768153 0.00073988887 0.89174199
0.72556567 0.0031084379 0.89411569
0.73451358 0.0067298077 0.89536899
0.74240005 0.0089559741 0.89796442
0.73832917 0.011171428 0.89143109
0.74573594 0.013168047 0.89401358
0.75448626 0.01650683 0.89555216
0.76249337 0.018776696 0.89817232
0.75823307 0.021058222 0.89139217
0.76580346 0.022974405 0.89422399
0.77462292 0.026566692 0.89542419
0.78261226 0.028796872 0.89809191
0.77818859 0.031062756 0.89121121
0.78558111 0.032781035 0.89419681
0.79463351 0.036334049 0.89555967
0.80242556 0.038614631 0.89809006
0.7990666 0.040503364 0.89175415
0.80600643 0.042305388 0.89480686
0.81458032 0.04565936 0.89600229
0.81651604 -0.10012387 0.90145427
0.79828644 -0.090921015 0.90120822
0.80575478 -0.092949115 0.90382379
0.81366676 -0.095930085 0.90556729
0.77857417 -0.080409706 0.90061474
0.7862249 -0.082477592 0.90332282
0.79469806 -0.085401461 0.90554172
0.80268037 -0.088046171 0.90776718
0.76647419 -0.072073705 0.9025709
0.77501076 -0.074954182 0.90488666
0.78353643 -0.077716917 0.90733999
0.79024899 -0.079358004 0.90992934
0.74697417 -0.061801307 0.90182889
0.75529575 -0.064162411 0.90463698
0.76392657 -0.067328662 0.90666521
0.77147889 -0.069336146 0.9093802
0.72807384 -0.051290724 0.90179175
0.73557645 -0.053460658 0.90427274
0.74433452 -0.056863375 0.90609747
0.75184596 -0.05884866 0.90881187
0.70981383 -0.041127101 0.90013218
0.71604264 -0.043123122 0.90207934
0.72516048 -0.045016058 0.90536171
0.73251843 -0.045968425 0.90880805
0.70745832 -0.03374913 0.90104717
0.71496141 -0.035003506 0.90403336
0.7241776 -0.035485413 0.90798229
0.73009598 -0.039432101 0.90955365
0.70565236 -0.024865005 0.90192229
0.71497327 -0.024931557 0.90602589
0.72211254 -0.024794698 0.90907073
0.70808065 -0.017310638 0.90092278
0.71510512 -0.01530493 0.90331811
0.72462559 -0.014471714 0.90729368
0.73135996 -0.011762783 0.90928602
0.71726185 -0.0076476466 0.9012987
0.72536844 -0.0051212213 0.90371656
0.73416966 -0.0042088279 0.90757149
0.74090755 -0.0013810636 0.90958041
0.72921765 0.00075740181 0.90053809
0.73606342 0.0024064491 0.90321583
0.74489582 0.0054495852 0.90522492
0.75348675 0.0084162615 0.90727693
0.74954391 0.010786707 0.9006021
0.75626439 0.012360786 0.90331262
0.76483446 0.015408169 0.90516263
0.77336687 0.018238347 0.90731984
0.7695362 0.020489989 0.90091401
0.77613914 0.022137038 0.90342158
0.78491938 0.025410954 0.90508342
0.7937234 0.028381819 0.90723079
0.78939116 0.030801514 0.90018207
0.79612678 0.032230839 0.90312725
0.80491751 0.035353623 0.90503019
0.81355685 0.038345739 0.9070189
0.80956042 0.040656917 0.90039456
0.81570989 0.042066794 0.90292126
0.81501853 -0.091568954 0.9119032
0.79766977 -0.081533283 0.91234738
0.80550909 -0.084291376 0.91433495
0.81333256 -0.086966559 0.91641378
0.7781958 -0.071147554 0.91176283
0.78582048 -0.073474661 0.91413391
0.79431021 -0.076564737 0.91615933
0.80221933 -0.079116687 0.91844881
0.75878 -0.061093487 0.91080987
0.76592809 -0.062804691 0.91361231
0.77447134 -0.065975361 0.91557515
0.78291672 -0.068618827 0.91812009
0.73950541 -0.050798625 0.91024935
0.74614221 -0.052339159 0.91250801
0.75531578 -0.054821219 0.91524911
0.76277357 -0.056964684 0.91806287
0.73713326 -0.044260766 0.91138566
0.74487782 -0.045007665 0.91461343
0.75360805 -0.045665529 0.91830099
0.72843111 -0.032542728 0.91064459
0.73500919 -0.03497583 0.91290873
0.74492949 -0.035177823 0.91724342
0.75124902 -0.037416916 0.91944516
0.72687411 -0.024978384 0.91140211
0.73507458 -0.024892675 0.91501129
0.74313629 -0.025039705 0.91850793
0.72877669 -0.018481934 0.91071826
0.73542148 -0.015515824 0.91257083
0.74501872 -0.014815751 0.91663218
0.752177 -0.01256793 0.91899419
0.7380293 -0.0079942103 0.9108392
0.74513489 -0.0052312156 0.91297817
0.75471115 -0.0048780064 0.91716468
0.7618745 -0.0017696387 0.91919607
0.74736357 0.0018499866 0.91116697
0.75556797 0.0039873002 0.91362292
0.76442969 0.0059145628 0.91692871
0.77127022 0.0086027104 0.91939425
0.76703751 0.011741391 0.91250819
0.77519608 0.014343474 0.9147315
0.78390396 0.017550079 0.91644156
0.79078805 0.019102134 0.91931093
0.78685641 0.021617239 0.91242123
0.79513872 0.02411171 0.91490537
0.80413598 0.027817458 0.91606623
0.81128997 0.029689921 0.91864723
0.80715352 0.031825546 0.91218662
0.81475842 0.034008119 0.91463399
0.80901563 -0.080727965 0.92113245
0.81460446 -0.082505442 0.92278212
0.78903067 -0.070170924 0.92040801
0.79606527 -0.072133921 0.92282224
0.80471611 -0.07525868 0.92491573
0.81325454 -0.077882469 0.92754877
0.77683014 -0.061866418 0.92225599
0.78542316 -0.064342014 0.9249447
0.7941125 -0.067603469 0.9270609
0.80080283 -0.069019303 0.92991257
0.76633263 -0.05373453 0.92172456
0.77493137 -0.055026032 0.9251793
0.78313559 -0.056038439 0.92861104
0.75788224 -0.0431647 0.92085499
0.76493227 -0.044958204 0.92349786
0.7745325 -0.045457415 0.92761207
0.78112286 -0.048915479 0.92961013
0.7495023 -0.031194879 0.92032278
0.75546485 -0.034601018 0.92205679
0.76485461 -0.034915622 0.92612696
0.77227873 -0.036599301 0.92896461
0.74794221 -0.02472423 0.92089701
0.75513834 -0.024939347 0.92393506
0.76439089 -0.024948506 0.92803055
0.74946553 -0.019211134 0.92033923
0.75574833 -0.015859814 0.92187923
0.76493341 -0.015179595 0.92576253
0.77282578 -0.013185545 0.928554
0.75890464 -0.0086369943 0.92051107
0.76569027 -0.0055692876 0.92238766
0.77501321 -0.0048207478 0.92630672
0.7823081 -0.0028899477 0.92885303
0.76836187 0.0021631473 0.92060345
0.77530921 0.0046958909 0.92276001
0.78480083 0.0050867987 0.92689353
0.79194301 0.007678872 0.92911512
0.77771074 0.011218805 0.92109859
0.78581113 0.01329653 0.92342401
0.79474956 0.01547822 0.92631757
0.8019107 0.018483518 0.92858332
0.79778951 0.021014573 0.92171359
0.8054533 0.023033634 0.92445815
0.81428081 0.026880309 0.92527205
0.81768298 0.03128536 0.92107391
0.80725187 -0.071517572 0.93126523
0.81455189 -0.073260583 0.93413275
0.78935075 -0.060896181 0.93007207
0.79598516 -0.06310872 0.93220967
0.80525732 -0.065116152 0.93552119
0.81246275 -0.065963537 0.93887442
0.78755504 -0.053760953 0.93117011
0.79486543 -0.055033214 0.93406659
0.80425304 -0.055518355 0.93809032
0.77884895 -0.041654546 0.93053007
0.78513658 -0.044814002 0.93247366
0.79494858 -0.045036882 0.93675458
0.80160475 -0.046682075 0.93926269
0.77667016 -0.034201108 0.93154317
0.78500271 -0.035014875 0.93501323
0.79323995 -0.035780575 0.93845385
0.76888567 -0.024036935 0.93046808
0.77499193 -0.025007451 0.93279475
0.78498077 -0.024871262 0.93725878
0.79113072 -0.026783414 0.93951172
0.77650917 -0.016224451 0.93139195
0.78498989 -0.015056587 0.9347685
0.79369229 -0.01409653 0.93832558
0.80042565 -0.010120964 0.93982768
0.78609329 -0.0060957754 0.9318015
0.79481459 -0.0052467356 0.93540967
0.80331284 -0.0033805945 0.93852425
0.7891475 0.0010340894 0.9304229
0.79571164 0.0039798315 0.93224692
0.80489844 0.0050110845 0.93599504
0.81275147 0.0066653071 0.93890011
0.79863513 0.011241611 0.9307583
0.80538964 0.014343749 0.93259436
0.81426555 0.014891478 0.93640244
0.80897135 0.020437587 0.93115675
0.81514198 0.022152103 0.93292534
0.81575125 -0.06375961 0.94099081
0.80829942 -0.05239838 0.94070792
0.814201 -0.054906476 0.94265342
0.79979169 -0.040638514 0.9400636
0.80612803 -0.044439368 0.94185841
0.81397325 -0.044996385 0.94518089
0.79767287 -0.033548042 0.94100696
0.80485344 -0.035043322 0.94378674
0.81402051 -0.035240084 0.94778967
0.79550642 -0.024630779 0.94202095
0.80501497 -0.024964884 0.94615167
0.81191558 -0.025741477 0.94914001
0.79728591 -0.016814431 0.94099891
0.8050338 -0.014921292 0.94376433
0.81379765 -0.014759864 0.94765782
0.80707514 -0.0063975616 0.94138944
0.81435263 -0.0049603237 0.94411868
0.81565452 0.0036530537 0.94137549
0.81744361 -0.030872922 0.9504621
0.81590456 -0.024318442 0.95117056
0.81692559 -0.01861999 0.95056248
