# .PCD v0.7 - Point Cloud Data file format
VERSION 0.7
FIELDS x y z
SIZE 4 4 4
TYPE F F F
COUNT 1 1 1
WIDTH 103
HEIGHT 1
VIEWPOINT 0 0 0 1 0 0 0
POINTS 103
DATA ascii
0.0075080646 -0.041778278 0.65883327
0.011554467 -0.042173799 0.65899998
-0.0024004513 -0.032418162 0.65847373
0.0045583961 -0.035849016 0.65802407
0.013649221 -0.037530977 0.65863651
0.0030788532 -0.025967743 0.65833336
0.015420768 -0.026975239 0.65899998
-0.002375457 -0.052546781 0.6672942
0.0053308168 -0.05403148 0.66559345
0.014600274 -0.05286916 0.66469449
0.020373732 -0.050643276 0.66399997
-0.012278904 -0.042264413 0.66692853
-0.0049992735 -0.044575091 0.66432899
0.0046428256 -0.045737036 0.66199988
0.015432172 -0.045516506 0.66124094
0.025096519 -0.04482447 0.66401374
0.03262357 -0.043378305 0.66687995
-0.013322291 -0.034886207 0.66673684
-0.006237335 -0.035640735 0.66241509
0.001593999 -0.038115274 0.66125
0.017573319 -0.035812911 0.66138458
0.024884881 -0.035117209 0.6624338
0.032148644 -0.034325562 0.6667273
-0.013037693 -0.025740165 0.66691887
-0.005241916 -0.025030313 0.66411096
0.0048253885 -0.024130702 0.66244251
0.015243047 -0.023702396 0.66135275
0.024865542 -0.025078651 0.66258198
0.032651495 -0.027601989 0.66694731
-0.011703938 -0.019310772 0.66750002
-0.0044892607 -0.016181149 0.66690552
0.0052377419 -0.015140469 0.66427791
0.015125073 -0.01511754 0.66349971
0.023812432 -0.016994206 0.66597217
0.0068096616 -0.0075665871 0.66702944
0.013889424 -0.0067525255 0.66704983
-0.0011782399 -0.060679354 0.67199999
0.00058911997 -0.060679354 0.67199999
0.015990399 -0.060355864 0.67499995
0.025454452 -0.061588019 0.67549992
0.030045118 -0.060679354 0.67199999
-0.013845786 -0.052965585 0.67530239
-0.0052951328 -0.055676557 0.67097503
0.0027766537 -0.058958963 0.67157143
0.015506129 -0.057574689 0.67095989
0.024784878 -0.055392876 0.67134953
0.032642849 -0.055144381 0.67290485
-0.020971071 -0.044471655 0.67862493
-0.016179582 -0.045475695 0.67327994
-0.0088104997 -0.049338799 0.67000002
0.037216403 -0.045463227 0.67440015
0.041750371 -0.04543658 0.67839998
-0.022276826 -0.034714423 0.6766206
-0.018121921 -0.035190176 0.67139298
0.036964975 -0.035244234 0.67197824
0.042097069 -0.033676635 0.67631572
-0.022749729 -0.024627032 0.6764999
-0.017533282 -0.024341952 0.67133331
0.035910584 -0.023900805 0.6727255
0.041706536 -0.024820834 0.67505258
-0.022560922 -0.017491018 0.67815781
-0.014849505 -0.014872505 0.6747762
-0.0069958433 -0.012050004 0.67055005
0.025670499 -0.012418292 0.67082351
0.034401547 -0.015037034 0.67436993
0.041248038 -0.018694039 0.67699999
-0.01178885 -0.0075451569 0.67707145
-0.0041211373 -0.005427897 0.6745168
0.0040542595 -0.0036894511 0.67363024
0.017147694 -0.003826431 0.67289281
0.024283174 -0.0059525669 0.67419988
0.031483341 -0.0079520484 0.67477781
-0.0017831399 0.0011887599 0.67799997
0.0040699588 0.0010516628 0.67807686
0.010104459 0.00059437996 0.67799997
0.014570423 0.02618316 0.67441177
-0.019076265 -0.053055864 0.68000001
0.033979602 -0.050671335 0.68000001
-0.024832239 -0.041957702 0.6825
0.032191202 -0.049479067 0.68000001
-0.02549018 -0.03773386 0.68141669
0.042325467 -0.037854467 0.68000001
-0.026296103 -0.026163628 0.67999995
-0.021915056 -0.013544939 0.68183339
-0.018674754 -0.010999161 0.68085712
0.040058404 -0.016142938 0.68199998
-0.01596228 -0.0063525853 0.68170381
-0.0083704125 -0.0041852063 0.68199998
0.014903332 -0.00059613329 0.68000001
0.0232492 -0.0017883999 0.68000001
0.015540229 0.0016448461 0.68175012
-0.015571619 0.018866364 0.68656516
-0.0043298132 0.018891508 0.68635005
-0.0050204946 0.021158347 0.68180007
0.004725331 0.021089191 0.68300003
0.0060111484 0.0082428325 0.69800001
0.013094947 0.0081180502 0.69800007
0.027103025 -0.0014482534 0.70800006
-0.0054164845 0.0050188024 0.7036112
0.0046294183 0.0046992428 0.70135295
0.015258969 0.0054104356 0.70173341
-0.0085311355 -0.0014576045 0.71200001
0.028019799 -0.001557179 0.71024996
