# .PCD v0.7 - Point Cloud Data file format
VERSION 0.7
FIELDS x y z
SIZE 4 4 4
TYPE F F F
COUNT 1 1 1
WIDTH 93
HEIGHT 1
VIEWPOINT 0 0 0 1 0 0 0
POINTS 93
DATA ascii
0.70527357 -0.034989391 0.82042998
0.71537864 -0.03573668 0.82041532
0.69548327 -0.025008773 0.8203519
0.70473427 -0.024906442 0.82381201
0.68501645 -0.01507663 0.8203184
0.69548303 -0.014936028 0.82035196
0.70485556 -0.01489402 0.82366675
0.68514389 -0.0048965886 0.82031858
0.69541764 -0.0049473103 0.82035106
0.70495731 -0.0051918444 0.82359588
0.68514466 0.0050115166 0.82031798
0.69559944 0.0049780826 0.82035136
0.70510483 0.0051176525 0.82382637
0.6851452 0.01491964 0.82031792
0.69536924 0.015032507 0.82035065
0.70524281 0.015198981 0.82398415
0.69548535 0.024874806 0.82035017
0.7053445 0.024910999 0.82391298
0.70522517 0.034914322 0.82038039
0.71551561 0.034863103 0.82041299
0.72512269 0.03505259 0.8204425
0.70543414 -0.025101114 0.83488464
0.70557898 -0.015013658 0.83488524
0.70572376 -0.0049652685 0.83474022
0.70586526 0.0049343188 0.83489674
0.70601195 0.015190753 0.83517551
0.70615166 0.024887048 0.83503133
0.70540226 -0.02500518 0.84538937
0.70554632 -0.015042875 0.84506553
0.70568943 -0.0050483658 0.84518898
0.70583194 0.0048143668 0.84498936
0.70597607 0.014835387 0.84489524
0.70612031 0.024862571 0.84480101
0.70537198 -0.024943402 0.85531515
0.7055136 -0.015042015 0.85543823
0.70565921 -0.0049587372 0.85523838
0.70580202 0.0049670404 0.85514826
0.70594496 0.014899043 0.85505807
0.70608801 0.024837084 0.85496771
0.70533729 -0.025113577 0.86550915
0.70548278 -0.01502193 0.86530513
0.70562911 -0.0048697982 0.86511296
0.70576984 0.0049528354 0.86523587
0.70591426 0.014961568 0.86504197
0.70605946 0.025082918 0.86506891
0.71365106 -0.030125409 0.87791079
0.72611678 -0.03021735 0.87794971
0.73807633 -0.03023036 0.87798709
0.74528921 -0.030319287 0.87800956
0.75368136 -0.030497527 0.87803578
0.76231617 -0.030172538 0.87806284
0.70613849 -0.024964519 0.87524611
0.7155841 -0.025007613 0.87791681
0.72503853 -0.025069291 0.8779462
0.7349413 -0.0249344 0.87797737
0.74531662 -0.025087107 0.87800974
0.7547527 -0.025074581 0.87803906
0.76239157 -0.024763031 0.87806284
0.70624834 -0.014787013 0.87516743
0.71544147 -0.015028013 0.87791586
0.72526193 -0.01501817 0.87794703
0.73505604 -0.014925003 0.87797707
0.74527639 -0.015019029 0.87800932
0.75475329 -0.015059474 0.878039
0.76231647 -0.01497655 0.87806261
0.70633221 -0.0050324341 0.87514859
0.71554929 -0.004850816 0.87791622
0.72503972 -0.0049845413 0.87794572
0.73513573 -0.0051067355 0.87797701
0.74515748 -0.0048589357 0.87800843
0.75475323 -0.0050443425 0.87803906
0.76224089 -0.005193477 0.87806255
0.70643854 0.0047820988 0.87506932
0.71554983 0.0050403634 0.87791538
0.7252292 0.0048797075 0.8779462
0.73498213 0.0050857295 0.87797666
0.74527699 0.0052153044 0.87800872
0.75475317 0.004970789 0.8780393
0.76231641 0.0047756308 0.8780629
0.70654213 0.015016402 0.87500882
0.71555036 0.014931567 0.87791574
0.72508019 0.014912166 0.8779453
0.73505718 0.015195255 0.87797713
0.74527717 0.015086631 0.87800884
0.75475329 0.014985916 0.87803936
0.76231641 0.014905533 0.8780629
0.70661497 0.025212381 0.87492073
0.7155509 0.024822785 0.87791485
0.72515279 0.024866445 0.87794584
0.73505706 0.024911482 0.87797689
0.74514735 0.024771389 0.87800896
0.75475317 0.024500286 0.87803924
0.76231623 0.024528939 0.87806273
