# .PCD v0.7 - Point Cloud Data file format
VERSION 0.7
FIELDS x y z
SIZE 4 4 4
TYPE F F F
COUNT 1 1 1
WIDTH 170
HEIGHT 1
VIEWPOINT 0 0 0 1 0 0 0
POINTS 170
DATA ascii
0.72510946 -0.12502779 0.82045096
0.73493415 -0.12503149 0.82048213
0.74479884 -0.12601274 0.82051337
0.71557522 -0.11499171 0.8204208
0.72511035 -0.11498519 0.82045025
0.73206496 -0.11433244 0.82407558
0.71549088 -0.10493083 0.82041967
0.72511101 -0.10494256 0.82044989
0.73260701 -0.10499118 0.82454032
0.71550572 -0.094950296 0.82041943
0.72511178 -0.095000312 0.82044983
0.73310119 -0.095042802 0.82416052
0.7154637 -0.08497104 0.82041883
0.72511238 -0.085058071 0.82044965
0.7336272 -0.084918737 0.82400864
0.71550679 -0.074992165 0.82041854
0.72511292 -0.075015359 0.82044941
0.73414582 -0.075023688 0.82412332
0.75808322 -0.070095077 0.8227703
0.76385742 -0.070378944 0.82542866
0.77529442 -0.070989199 0.8231656
0.78430408 -0.071174227 0.82203722
0.79466808 -0.071784757 0.82066929
0.80495435 -0.072541095 0.82070178
0.72511303 -0.064972647 0.82044876
0.73494703 -0.065658092 0.82149917
0.74527341 -0.065530069 0.82143503
0.75464779 -0.065180779 0.82073438
0.76444054 -0.064942047 0.82057327
0.77457589 -0.065007515 0.82060516
0.78514904 -0.064967372 0.82063884
0.7946682 -0.065125801 0.820669
0.73500103 -0.055044021 0.82048017
0.74524963 -0.054989811 0.82051224
0.7547943 -0.055018097 0.82054234
0.76469541 -0.054941598 0.82057369
0.77475482 -0.055078145 0.82060558
0.78505784 -0.054998536 0.8206383
0.73225522 -0.114369 0.83491004
0.73285592 -0.1050549 0.8350997
0.73351163 -0.094908133 0.83494693
0.73414153 -0.085150383 0.83505726
0.73479837 -0.074976295 0.83508223
0.75836456 -0.070115536 0.837327
0.76594508 -0.070604496 0.83425057
0.77326977 -0.071077876 0.83704543
0.78343594 -0.07173343 0.8317219
0.73624492 -0.069138512 0.83414102
0.74333304 -0.069144934 0.83687258
0.75368875 -0.069812931 0.83288485
0.73222882 -0.11428589 0.84492236
0.73282874 -0.10498438 0.84512174
0.73346418 -0.095149718 0.8449716
0.73411947 -0.085000277 0.84498203
0.73476678 -0.074966393 0.84519953
0.75670749 -0.070010506 0.84970999
0.76583785 -0.070599176 0.84442681
0.77575052 -0.071239159 0.84418344
0.7822091 -0.071656376 0.8454482
0.73602515 -0.069096081 0.84434193
0.74526948 -0.069271207 0.84473276
0.75324577 -0.069786459 0.84638739
0.73219979 -0.1142537 0.8547973
0.73280048 -0.10493422 0.85503459
0.73344254 -0.094980508 0.85522783
0.73409015 -0.084967345 0.85489208
0.73473436 -0.074983574 0.85506225
0.75863975 -0.070135541 0.85156465
0.7636891 -0.070462324 0.85641122
0.77578574 -0.071242973 0.85387748
0.78101039 -0.071581095 0.85884112
0.73583329 -0.069164209 0.8555581
0.74639171 -0.069345035 0.85335863
0.75167412 -0.069686905 0.85847968
0.73216993 -0.11421022 0.86512041
0.73276114 -0.10507087 0.86468333
0.7334187 -0.094858281 0.86523122
0.73405415 -0.085018456 0.86517942
0.73469526 -0.075115524 0.86466354
0.7581439 -0.070105605 0.86475188
0.76478297 -0.070534326 0.86507022
0.77389145 -0.071122617 0.86620384
0.78343618 -0.071738087 0.86114568
0.73517168 -0.06922172 0.8658126
0.74493146 -0.06925264 0.86518389
0.75509179 -0.069908082 0.86179304
0.73213369 -0.11427573 0.87519711
0.73273367 -0.10500541 0.87473744
0.73338038 -0.094965696 0.87505108
0.7340225 -0.085014977 0.87523913
0.7346682 -0.075039327 0.87477452
0.75803763 -0.070100866 0.87801278
0.76660687 -0.070653334 0.87295634
0.77427572 -0.071148843 0.87519318
0.78223723 -0.071662739 0.87421453
0.73596489 -0.069197461 0.87443596
0.74349833 -0.069161952 0.87672299
0.75314039 -0.069783926 0.87321919
0.73209846 -0.11433798 0.88506132
0.73269951 -0.10504135 0.88473892
0.73333967 -0.095103182 0.88521481
0.73399115 -0.085011654 0.88514
0.73463762 -0.07501667 0.88479537
0.75681156 -0.070023596 0.88987702
0.76488107 -0.070543773 0.8847115
0.77601546 -0.071262494 0.88357496
0.78185517 -0.071640201 0.88773865
0.73589122 -0.06913805 0.88430095
0.74457079 -0.069232583 0.88537455
0.75309014 -0.069782749 0.88620019
0.73207039 -0.11429557 0.89480942
0.73267192 -0.1049604 0.8950339
0.73331463 -0.094998017 0.895208
0.73396063 -0.085008532 0.89488626
0.73461199 -0.074911267 0.89503294
0.75868142 -0.070144616 0.89172453
0.76356697 -0.070460819 0.89655167
0.7752623 -0.071215644 0.89487332
0.78226972 -0.071668103 0.89492714
0.73570704 -0.069143012 0.89478302
0.74542618 -0.069289282 0.89468563
0.75230449 -0.069733918 0.89816874
0.73204613 -0.11417679 0.90490097
0.7326383 -0.10499119 0.90515292
0.73329139 -0.094884954 0.90490568
0.73392797 -0.085013688 0.90502685
0.73456466 -0.075142846 0.90519321
0.75820106 -0.070115566 0.90404785
0.76454026 -0.070525043 0.9052121
0.77343494 -0.071099482 0.90630174
0.782655 -0.071694106 0.90210932
0.73564845 -0.069138639 0.90530932
0.74575919 -0.069312282 0.90406102
0.75321311 -0.069793731 0.90530604
0.7657249 -0.12032382 0.91807932
0.77557057 -0.12065106 0.91811097
0.781443 -0.12074783 0.91812974
0.73321944 -0.11423921 0.91527641
0.74536818 -0.1146199 0.91801423
0.75582784 -0.11499125 0.91804743
0.76528877 -0.11494749 0.91807777
0.77515501 -0.1148982 0.91810942
0.78144348 -0.11519958 0.91812962
0.73363483 -0.10497143 0.91517347
0.74536878 -0.10488889 0.91801369
0.75568724 -0.1049269 0.91804659
0.76531994 -0.10497892 0.91807747
0.77515596 -0.10490586 0.91810912
0.78144425 -0.10511182 0.91812915
0.73408878 -0.095080703 0.91491348
0.74528301 -0.094966009 0.9180131
0.75580233 -0.094991289 0.91804641
0.76523226 -0.095012486 0.91807663
0.77515668 -0.094913498 0.91810858
0.78144497 -0.095024019 0.91812897
0.73466283 -0.084986873 0.91516101
0.74541527 -0.085046165 0.91801256
0.75574595 -0.085046463 0.91804576
0.76535076 -0.084926575 0.91807663
0.77515751 -0.084921099 0.91810858
0.78229713 -0.084229253 0.91813141
0.73513335 -0.074977353 0.9149425
0.74532896 -0.075029179 0.91801226
0.75595134 -0.074561484 0.91787416
0.76553315 -0.074415669 0.91718644
0.77510202 -0.074834049 0.91737884
0.78260183 -0.074852385 0.91728854
0.73557454 -0.069204085 0.91478497
0.74414563 -0.069295935 0.91520578
0.75408161 -0.069850944 0.91243207
